# .PCD v0.7 - Point Cloud Data file format
VERSION 0.7
FIELDS x y z
SIZE 4 4 4
TYPE F F F
COUNT 1 1 1
WIDTH 838
HEIGHT 1
VIEWPOINT 0 0 0 1 0 0 0
POINTS 838
DATA ascii
-1.831324577331543 2.685551404953003 0.08483903855085373
-1.784831166267395 2.3788819313049316 0.2582996189594269
-1.777488350868225 2.345414638519287 0.7697892189025879
-1.8261947631835938 2.1276845932006836 0.5529224276542664
-1.7102563381195068 2.4119346141815186 0.5611705780029297
-1.7234772443771362 2.1273818016052246 0.3370375633239746
-1.7358462810516357 2.8978612422943115 0.06295526027679443
-1.7443039417266846 2.2634549140930176 0.0535602830350399
-1.784878134727478 2.010903835296631 0.8563099503517151
-1.72782301902771 2.1859776973724365 0.9998685717582703
-1.9603054523468018 2.8045547008514404 0.6190487742424011
-1.6953656673431396 2.5221118927001953 0.9491668343544006
5.498758792877197 6.463305473327637 0.7387067079544067
5.519269943237305 6.044374942779541 0.9998726844787598
5.465555667877197 6.476775169372559 0.1472267061471939
5.493978500366211 6.006021022796631 0.13286109268665314
5.499862194061279 6.047677516937256 0.7032525539398193
5.501153945922852 6.00270938873291 0.4256472885608673
5.493614196777344 6.444682598114014 0.44185560941696167
5.471814155578613 6.241776943206787 0.14626933634281158
5.462591648101807 6.261292457580566 0.9961397647857666
5.473122596740723 6.277589321136475 0.6030317544937134
5.511465549468994 6.481145858764648 0.9970478415489197
5.728409290313721 6.539222717285156 0.7893698811531067
5.4345293045043945 6.232706546783447 0.3786359131336212
3.252375364303589 -17.108545303344727 2.3297722339630127
3.0068740844726562 -17.791584014892578 2.6888160705566406
8.833712577819824 7.9452223777771 -0.21752692759037018
-2.0424156188964844 7.753994941711426 -0.12036136537790298
-2.7725555896759033 -6.888576984405518 1.4221668243408203
-2.021066188812256 -6.009939193725586 1.2724552154541016
-2.036461591720581 -6.038804531097412 1.634206771850586
-2.0415842533111572 -6.21953821182251 1.8601694107055664
3.974743604660034 -6.926342487335205 -0.40981972217559814
-0.4822351634502411 30.65414047241211 4.490828037261963
-0.8747028112411499 30.942590713500977 4.499537944793701
-0.7454448938369751 30.637006759643555 4.439186096191406
4.9416069984436035 11.73470401763916 -0.20226337015628815
4.885027885437012 11.478877067565918 -0.1752946823835373
4.843854904174805 11.231672286987305 -0.1587706208229065
4.994121551513672 11.059189796447754 -0.13823458552360535
1.3416639566421509 -20.9700927734375 0.3589078187942505
1.915647268295288 -20.77644157409668 0.9550244212150574
1.9119324684143066 -20.551464080810547 0.9783055782318115
1.6872349977493286 -20.5556697845459 0.9770758748054504
-0.026292869821190834 -19.638954162597656 5.821798324584961
-0.2515254616737366 -19.590824127197266 5.851241111755371
-0.32002294063568115 29.057273864746094 3.3107340335845947
-0.8293525576591492 29.03927993774414 3.3148322105407715
-0.06074133142828941 29.054582595825195 3.307492256164551
-0.602086067199707 29.025299072265625 3.235151529312134
-1.763215184211731 -2.766223907470703 2.336538791656494
-1.815087914466858 -2.964128017425537 2.027745246887207
-1.74979829788208 -2.532804489135742 2.290682315826416
-1.7630736827850342 -2.2943248748779297 2.287877321243286
-1.74677574634552 -2.0828146934509277 2.182915687561035
-1.7488030195236206 -2.6737630367279053 2.0141022205352783
-1.7666997909545898 -2.997586250305176 2.398319959640503
-1.6941301822662354 -2.222630262374878 2.0015923976898193
11.162878036499023 10.215734481811523 1.7529208660125732
11.230781555175781 10.084918975830078 1.5289119482040405
0.00896049290895462 10.268445014953613 -0.1785363256931305
0.1199808344244957 10.57572078704834 -0.18391165137290955
0.5249200463294983 10.581387519836426 -0.18422581255435944
0.9927317500114441 10.578009605407715 -0.18924717605113983
0.7678564786911011 10.591413497924805 -0.15901711583137512
0.41738536953926086 10.635004043579102 -0.44560885429382324
0.13648954033851624 10.566399574279785 -0.4124816358089447
0.06821062415838242 10.224475860595703 -0.3998018205165863
0.9993627071380615 10.607869148254395 -0.41521286964416504
0.6321794986724854 10.591485977172852 -0.3807793855667114
0.6158381104469299 10.815049171447754 -0.08530238270759583
0.6047117710113525 10.938271522521973 -0.5784833431243896
0.6376579999923706 10.37332820892334 -0.09477977454662323
0.6741924285888672 10.253734588623047 -0.2904978394508362
0.46089357137680054 10.351268768310547 -0.2993592619895935
0.37873679399490356 10.048206329345703 -0.10524450987577438
0.2775309085845947 10.93139362335205 -0.07877514511346817
0.7414652109146118 10.117254257202148 -0.09581044316291809
0.9807091355323792 10.163538932800293 -0.0872872844338417
-1.7623554468154907 3.638489246368408 -1.1542304754257202
-1.7503973245620728 3.2570271492004395 -1.1961700916290283
-1.8363878726959229 3.999941110610962 -1.175362229347229
-1.7618815898895264 3.0507194995880127 -1.0402836799621582
-1.7736706733703613 3.4402554035186768 -1.0244131088256836
-1.79036283493042 3.7187740802764893 -1.3886911869049072
-1.801324725151062 3.0342013835906982 -1.2813720703125
-1.747573733329773 3.953917980194092 -1.3848352432250977
5.81768274307251 -5.454954147338867 1.8640347719192505
5.7764716148376465 -5.751530647277832 1.893188238143921
5.761633396148682 -5.111404895782471 1.793259859085083
5.796319961547852 -5.982206344604492 1.966948390007019
5.820055961608887 -5.275263786315918 1.4084805250167847
5.775945663452148 -5.002768516540527 1.0296626091003418
5.777883052825928 -5.428494930267334 1.1000875234603882
5.787494659423828 -5.492044448852539 1.4973622560501099
5.773186683654785 -5.013463020324707 1.40776789188385
5.772103309631348 -5.904699325561523 1.1355613470077515
5.795021057128906 -5.9694108963012695 1.509884238243103
5.8022661209106445 -5.671267032623291 1.092799186706543
5.817078113555908 -5.7269086837768555 1.4083821773529053
5.793195724487305 -5.329676151275635 1.6747405529022217
5.792238235473633 -5.183887958526611 1.1739991903305054
-1.0034897327423096 2.1594645977020264 -0.3649080991744995
-1.1188465356826782 2.6083645820617676 -0.3375484049320221
-1.217023253440857 2.062190294265747 -0.3564302623271942
-1.3806527853012085 2.4955124855041504 -0.3288475275039673
-1.7796536684036255 2.808195114135742 -0.042041610926389694
-1.7970685958862305 2.7922616004943848 -0.718799889087677
-1.8061641454696655 2.497377395629883 -0.045742109417915344
-1.481839895248413 2.057274580001831 -0.37346944212913513
-1.80854332447052 2.209118604660034 -0.024167142808437347
-1.6302049160003662 2.454984426498413 -0.3447229862213135
-1.8720157146453857 2.5384702682495117 -0.2631273567676544
-1.768767237663269 2.006294012069702 -0.2058643251657486
-1.7917754650115967 2.953535795211792 -0.2716153860092163
-1.7895236015319824 2.2348101139068604 -0.32645153999328613
-1.0299410820007324 2.883836269378662 -0.3477122485637665
-1.3290053606033325 2.7792956829071045 -0.32811519503593445
-1.595718502998352 2.697763442993164 -0.35016393661499023
-1.2839810848236084 2.280400276184082 -0.37647220492362976
-1.531347393989563 2.9280712604522705 -0.3552252948284149
-1.6890870332717896 2.0684456825256348 -0.5163423418998718
6.067248821258545 -5.246513366699219 -0.6403234004974365
2.4426887035369873 -1.7982745170593262 -0.47373512387275696
2.788806438446045 -1.5836189985275269 -0.5012676119804382
2.2539005279541016 -1.0039726495742798 -0.47136104106903076
2.9793598651885986 -1.0755735635757446 -0.4950101673603058
2.0696444511413574 -1.3396737575531006 -0.47309306263923645
2.8237950801849365 -1.3198784589767456 -0.48878976702690125
2.153350591659546 -1.9947443008422852 -0.4629196524620056
2.6230664253234863 -1.4204211235046387 -0.4648243188858032
2.210796356201172 -1.7247028350830078 -0.44119197130203247
2.7471392154693604 -1.0365792512893677 -0.4547252953052521
2.534640073776245 -1.1955811977386475 -0.44767722487449646
2.283966541290283 -1.5051944255828857 -0.4407443404197693
2.823186159133911 -1.9972089529037476 -0.4197135865688324
2.3128933906555176 -1.1893864870071411 -0.5947661995887756
2.9970450401306152 -1.7943735122680664 -0.5991396307945251
2.750431776046753 -1.8663915395736694 -0.6107068657875061
2.126296043395996 -1.5210083723068237 -0.6068223714828491
2.519313097000122 -1.9462594985961914 -0.624360203742981
2.099421262741089 -1.7966947555541992 -0.6281561255455017
2.010892868041992 -1.0123368501663208 -0.447358638048172
5.463757514953613 6.449490070343018 -0.14684274792671204
5.498698711395264 6.01809024810791 -0.14635899662971497
5.48310661315918 6.22027587890625 -0.004605206660926342
5.249821662902832 6.2841033935546875 -0.3415489196777344
5.026591777801514 6.4593305587768555 -0.25491276383399963
5.4601640701293945 6.249835014343262 -0.2629610300064087
5.020330429077148 6.699395179748535 -0.24649815261363983
5.276371955871582 6.5701141357421875 -0.2282366156578064
5.410109043121338 6.7639384269714355 -0.31822720170021057
5.731201171875 6.705862045288086 -0.26435908675193787
5.586202621459961 6.902088642120361 -0.27821269631385803
5.942148685455322 6.996037483215332 -0.24274210631847382
5.022799015045166 6.977681636810303 -0.21360953152179718
5.181639194488525 6.012526512145996 -0.2047499269247055
5.373771667480469 6.766072750091553 -0.07718250900506973
5.320180416107178 6.95058536529541 -0.4053514897823334
5.432511806488037 6.449288845062256 -0.37939825654029846
5.433221340179443 6.018322944641113 -0.37301674485206604
5.5194501876831055 6.488056659698486 -0.9886660575866699
5.512589931488037 6.055293083190918 -0.9597370624542236
-1.7791355848312378 -1.9657987356185913 1.535225749015808
-1.7652667760849 -1.7276585102081299 1.8204742670059204
-1.7658627033233643 -1.7333375215530396 1.503227710723877
-1.7623885869979858 -1.4329341650009155 1.775119423866272
-1.7783373594284058 -1.1518146991729736 1.478990077972412
-1.7974308729171753 -1.3214497566223145 1.1793501377105713
-1.7506417036056519 -1.4696708917617798 1.469935655593872
-1.7897120714187622 -1.8477498292922974 1.2045843601226807
-1.7397810220718384 -1.0544102191925049 1.9998191595077515
-1.7520431280136108 -1.1480591297149658 1.7341264486312866
-1.7791565656661987 -1.961356520652771 1.8597776889801025
-1.7875118255615234 -1.6037890911102295 1.20382559299469
-1.7810392379760742 -1.3455030918121338 1.9935747385025024
-1.779249668121338 -1.0124926567077637 1.1165584325790405
-1.8276396989822388 -1.4760870933532715 1.0088809728622437
-1.8346394300460815 -1.9988175630569458 1.0121808052062988
-5.00447940826416 -5.134115695953369 1.3434392213821411
-5.527699947357178 -5.936503887176514 1.692309856414795
-5.443426609039307 -5.900184154510498 1.9733680486679077
-5.027427673339844 -5.570338726043701 1.8810598850250244
-1.9360402822494507 22.97758674621582 3.1287736892700195
-1.9361610412597656 22.621322631835938 3.0804553031921387
6.079596519470215 -18.898677825927734 1.5849475860595703
6.1793293952941895 -18.646406173706055 1.4611790180206299
6.344298839569092 -18.948606491088867 1.4857726097106934
6.47125244140625 -18.68389892578125 1.4317760467529297
5.1253838539123535 19.428293228149414 1.3500152826309204
5.123443126678467 19.422941207885742 1.876616358757019
5.1383256912231445 19.16404151916504 1.3309298753738403
6.114496231079102 -19.68569564819336 2.513122797012329
6.26209020614624 -19.07313346862793 2.4546611309051514
6.267784595489502 -19.303285598754883 2.4821879863739014
6.378207206726074 -19.517715454101562 2.504729986190796
6.573685646057129 -19.51424217224121 2.2014310359954834
6.064889907836914 -19.422502517700195 2.721965789794922
6.255773067474365 -19.402341842651367 2.2542612552642822
6.19586706161499 -19.172029495239258 2.8425755500793457
6.006823539733887 -19.592395782470703 2.1819422245025635
6.434872150421143 -19.041318893432617 2.7162246704101562
4.886023998260498 -11.597455978393555 2.495741605758667
-0.10429618507623672 -20.054763793945312 1.8001223802566528
-0.3578314483165741 -20.073089599609375 1.8132022619247437
-0.6873558759689331 -20.181507110595703 1.8405534029006958
-0.20481577515602112 -20.31366729736328 1.1743168830871582
-0.03250686079263687 -20.48884391784668 1.214568018913269
-0.3265073597431183 -20.52347755432129 1.205980896949768
-0.5544804334640503 -20.513643264770508 1.2477977275848389
-0.637103259563446 -20.554052352905273 1.9965046644210815
-0.9486401081085205 -20.47553062438965 1.3745558261871338
-0.3939667344093323 -20.429275512695312 1.9936957359313965
-0.7682805061340332 -20.109540939331055 1.253781795501709
-0.36843377351760864 -20.045490264892578 1.1330314874649048
-0.04065331816673279 -20.045032501220703 1.2021729946136475
-0.1978997439146042 -20.700565338134766 1.9858567714691162
-0.9441890120506287 -20.4710693359375 1.8452835083007812
4.704203128814697 11.2441987991333 0.5850886106491089
1.0910743474960327 -20.94120216369629 -0.6892659664154053
1.2349891662597656 -20.725236892700195 -0.440569132566452
1.0054494142532349 -20.91303253173828 -0.3058716058731079
1.3705767393112183 -20.690885543823242 -0.17850865423679352
3.9799535274505615 -6.912483215332031 0.028635628521442413
8.818140983581543 7.988626956939697 0.09771215915679932
8.819071769714355 7.93726921081543 0.7262144684791565
0.025089139118790627 10.268418312072754 0.1785363256931305
0.5446764826774597 10.569565773010254 0.5524595379829407
0.1365661472082138 10.573519706726074 0.18387675285339355
0.14035217463970184 10.580663681030273 0.5523548722267151
0.5042194724082947 10.574385643005371 0.18408618867397308
0.02860516682267189 10.244017601013184 0.5346653461456299
0.995050311088562 10.586037635803223 0.5561428070068359
0.14017879962921143 10.576777458190918 0.9228575825691223
0.5161541104316711 10.562030792236328 0.9106137752532959
0.9948627948760986 10.582011222839355 0.1738101989030838
0.9946940541267395 10.587388038635254 0.9267492890357971
0.769271194934845 10.600500106811523 0.5546807050704956
0.013819082640111446 10.246721267700195 0.9001326560974121
0.7482413649559021 10.591681480407715 0.9283931851387024
0.7409121990203857 10.578741073608398 0.18883445858955383
0.3320951759815216 10.579113006591797 0.3943963050842285
0.5881982445716858 10.895695686340332 0.1473459154367447
0.7011368870735168 10.937989234924316 0.6149862408638
0.4973175525665283 10.987001419067383 0.8640387058258057
0.8301041126251221 10.999018669128418 0.1363801509141922
5.799957752227783 -4.770923614501953 2.000723123550415
5.792375564575195 -4.9980573654174805 2.042396068572998
5.789577484130859 -4.46808385848999 2.511775493621826
5.775362014770508 -4.44292688369751 2.130323886871338
5.819650650024414 -4.986255168914795 2.5686771869659424
5.784200191497803 -4.12416410446167 2.3772146701812744
5.785887241363525 -4.120306015014648 2.013068199157715
5.023589611053467 -4.65446662902832 2.4274044036865234
5.8206682205200195 -4.753186225891113 2.5000150203704834
5.757073402404785 -4.615843772888184 2.3182528018951416
5.064544677734375 -4.75541353225708 2.225343942642212
5.781378746032715 -4.976020812988281 2.325026512145996
5.450953960418701 5.492974758148193 -1.2189890146255493
5.452139854431152 5.848199844360352 -1.2642971277236938
5.4982991218566895 5.185410976409912 -1.4592444896697998
5.463916778564453 5.663658618927002 -1.5131409168243408
5.464729309082031 5.180757999420166 -1.180026888847351
5.444991111755371 5.996197700500488 -1.5507601499557495
5.545368194580078 5.6709675788879395 -1.0982247591018677
5.506415843963623 5.391754150390625 -1.0179498195648193
5.502476215362549 5.999471664428711 -1.0119438171386719
5.570451736450195 5.031922817230225 -1.0407230854034424
4.008437156677246 13.84510326385498 2.2160069942474365
4.015188694000244 13.60024642944336 2.3664426803588867
-5.334702014923096 -4.976656913757324 2.603267192840576
-5.341919898986816 -4.9709320068359375 2.2112247943878174
-5.4715094566345215 -4.841784477233887 2.478174924850464
1.32160222530365 4.012322425842285 -0.4945703148841858
1.5509802103042603 4.026217460632324 -0.5105066895484924
1.1147159337997437 4.118684768676758 -0.49346303939819336
1.8212391138076782 4.053973197937012 -0.5171824097633362
1.431300163269043 4.215827941894531 -0.5195342898368835
1.7647857666015625 4.272707939147949 -0.5261579155921936
1.1638065576553345 4.3507280349731445 -0.508272111415863
1.5716662406921387 4.435084819793701 -0.5381689071655273
1.4696662425994873 4.637681484222412 -0.5529283285140991
1.7689672708511353 4.551734447479248 -0.5406572222709656
1.2367697954177856 4.629768371582031 -0.5320624113082886
1.106829285621643 4.94810676574707 -0.537084698677063
1.9818686246871948 4.470593452453613 -0.522246241569519
1.9806753396987915 4.705345630645752 -0.5360700488090515
1.667452096939087 4.786930561065674 -0.5259474515914917
1.4130001068115234 4.85911750793457 -0.5222588777542114
1.9633517265319824 4.9595417976379395 -0.519525408744812
1.0160861015319824 4.573951721191406 -0.5381785035133362
5.163942813873291 19.051925659179688 2.8529791831970215
5.146655082702637 19.49030303955078 2.406123161315918
5.044596195220947 19.529932022094727 2.074726104736328
5.019637584686279 19.26615333557129 2.2481775283813477
5.137975692749023 19.025053024291992 2.2536418437957764
4.971299171447754 12.13424015045166 -0.17165875434875488
6.09904670715332 -18.517667770385742 2.38869571685791
6.116936206817627 -18.78619956970215 2.4148526191711426
6.141258716583252 -18.424541473388672 2.642695665359497
5.099003791809082 -20.596107482910156 -3.5265188217163086
-0.12788204848766327 31.055356979370117 4.642261981964111
-0.40752333402633667 31.036630630493164 4.556074619293213
-0.7443394660949707 31.122577667236328 4.529669284820557
6.0437397956848145 -19.584653854370117 1.071946144104004
6.1175737380981445 -19.593076705932617 1.7920708656311035
6.402960777282715 -19.497295379638672 1.7964038848876953
6.234486103057861 -19.196578979492188 1.7561964988708496
6.4733734130859375 -19.465682983398438 1.5779763460159302
6.110959529876709 -19.408700942993164 1.633705735206604
6.03225040435791 -19.052297592163086 1.4776787757873535
-0.5023074746131897 -3.1930840015411377 -0.39174461364746094
-0.0005825736443512142 -3.3395469188690186 -0.4049065113067627
-0.6942896246910095 -3.0726616382598877 -0.38755372166633606
-0.9978808164596558 -3.07403564453125 -0.3896089494228363
-0.2608630061149597 -3.2397611141204834 -0.40197432041168213
-0.10231612622737885 -3.117258310317993 -0.6332648396492004
-0.39339113235473633 -3.40277099609375 -0.6409189701080322
-0.17056138813495636 -3.899718999862671 -0.6573200821876526
-0.48775795102119446 -3.0876681804656982 -0.6442720293998718
-0.15523096919059753 -3.586214542388916 -0.6416890025138855
-0.41452181339263916 -3.6442365646362305 -0.6743742227554321
-0.9168820381164551 -3.2520580291748047 -0.6643304824829102
-0.6862891316413879 -3.6052443981170654 -0.6724815368652344
-0.915420651435852 -3.605637311935425 -0.6678727865219116
-0.7649986743927002 -3.8492915630340576 -0.6637226939201355
-0.033525895327329636 -3.017873525619507 -0.4447390139102936
-0.07581909745931625 -3.66440486907959 -0.4432211220264435
-0.29516416788101196 -3.8505380153656006 -0.4765256941318512
-0.3652765154838562 -3.528348684310913 -0.44926729798316956
-0.5092661380767822 -3.70417857170105 -0.3978758454322815
-1.6591336727142334 -21.544248580932617 0.589407742023468
5.8139472007751465 -5.538482666015625 2.139967918395996
5.793611526489258 -5.00620698928833 2.0400636196136475
5.8291335105896 -5.996458053588867 2.223113775253296
5.799542427062988 -5.23365592956543 2.0858068466186523
5.855529308319092 -5.715266227722168 2.7341465950012207
5.808387756347656 -5.991835594177246 2.807427406311035
5.7851362228393555 -5.097628116607666 2.579930305480957
5.801207065582275 -5.6789984703063965 2.3306455612182617
5.800764560699463 -5.402495861053467 2.6983349323272705
5.028517723083496 -5.172175407409668 2.1644973754882812
5.057542324066162 -5.435146808624268 2.145420789718628
5.076803207397461 -5.719996452331543 2.197178602218628
5.800634384155273 -5.339169979095459 2.478165626525879
5.790501594543457 -5.57786750793457 2.555567979812622
5.806169033050537 -5.1443257331848145 2.344877243041992
5.82867956161499 -5.955997943878174 2.5556252002716064
5.8113908767700195 -5.819098472595215 2.067301034927368
5.03676700592041 -5.928671360015869 2.0796544551849365
5.4792351722717285 6.126040458679199 -1.0040162801742554
5.504019737243652 6.486687183380127 -1.0486781597137451
5.502817630767822 6.136806011199951 -1.2354787588119507
5.475372314453125 6.376523494720459 -1.2498677968978882
5.482357978820801 6.517540454864502 -1.4592998027801514
-1.8177900314331055 2.108795404434204 -1.0166552066802979
-1.7644604444503784 2.2436728477478027 -1.2188977003097534
-1.773577332496643 2.491541624069214 -1.0121451616287231
-1.8762847185134888 2.734862804412842 -1.0154131650924683
-1.8378872871398926 2.968503952026367 -1.1265039443969727
-1.7725679874420166 2.643247365951538 -1.2244720458984375
-1.7829170227050781 2.036517381668091 -1.420098066329956
-1.7494735717773438 -1.4572737216949463 2.0924766063690186
-1.7546411752700806 -1.1246246099472046 2.0842325687408447
-1.7528446912765503 -1.6991443634033203 2.180567979812622
-1.7816741466522217 -1.9525009393692017 2.179499864578247
-5.359844207763672 -5.975003242492676 2.313054323196411
-5.439568996429443 -5.699375152587891 2.2523698806762695
-5.072358131408691 -5.917466640472412 2.5260050296783447
-5.4349870681762695 -5.373707294464111 2.2085165977478027
-5.32084846496582 -5.7533278465271 2.585794687271118
-5.317236423492432 -5.30440616607666 2.5479681491851807
-5.417466640472412 -5.07604455947876 2.2022104263305664
-5.4412078857421875 -5.509575843811035 2.5923140048980713
-5.416909217834473 -5.053648948669434 2.5239076614379883
-5.474949836730957 -5.9871602058410645 2.6014225482940674
-5.5316057205200195 -5.2708306312561035 2.477644205093384
-5.545632839202881 -5.866992950439453 2.10996675491333
-5.050750732421875 -5.382008075714111 2.624331474304199
5.755984783172607 -4.000513076782227 1.103540301322937
5.758837699890137 -4.006969451904297 1.6097464561462402
5.171063423156738 -4.009643077850342 1.0297033786773682
5.7824201583862305 -4.524226665496826 1.9556888341903687
5.756571292877197 -4.017988681793213 1.871042013168335
5.787492275238037 -4.769049644470215 1.9996485710144043
5.098568439483643 -4.067313194274902 1.2626241445541382
5.777915000915527 -4.301795959472656 1.9180827140808105
5.745699882507324 -4.268823146820068 1.0152746438980103
5.042600631713867 -4.239767074584961 1.0350761413574219
5.749703884124756 -4.544201374053955 1.0456821918487549
5.785007953643799 -4.320005416870117 1.3825777769088745
5.755861282348633 -4.0900559425354 1.3199880123138428
5.770742893218994 -4.688316345214844 1.7654818296432495
5.766448020935059 -4.9406843185424805 1.8003522157669067
5.7538275718688965 -4.558863162994385 1.3739606142044067
5.779266834259033 -4.779499530792236 1.4022563695907593
5.740346431732178 -4.797858238220215 1.0208238363265991
5.802471160888672 -4.429998397827148 1.6961885690689087
5.774014472961426 -4.985266208648682 1.3109402656555176
5.4599690437316895 5.454256534576416 -0.4022552967071533
5.009580135345459 5.672269821166992 -0.39440491795539856
5.502450466156006 5.378997802734375 -0.13361382484436035
5.52733850479126 5.0907206535339355 -0.9207420945167542
5.497985363006592 5.748595714569092 -0.13758167624473572
5.524991989135742 5.014210224151611 -0.3935033977031708
5.500344753265381 5.995233058929443 -0.1483556181192398
5.359001159667969 5.654125690460205 -0.4102758467197418
5.543862342834473 5.335122585296631 -0.9267014265060425
5.500940322875977 5.020689487457275 -0.12797529995441437
5.283351421356201 5.014267444610596 -0.6245235204696655
5.084043502807617 5.2940497398376465 -0.6237980723381042
5.324420928955078 5.669678211212158 -0.8906782865524292
5.06423807144165 5.670626640319824 -0.8386964201927185
5.48056173324585 5.359068870544434 -0.6300312280654907
5.106979846954346 5.430321216583252 -0.37641897797584534
5.6126508712768555 5.6072821617126465 -0.8901922106742859
5.006160259246826 5.0088372230529785 -0.5326219201087952
5.497888565063477 5.973976135253906 -0.9618923664093018
5.554981231689453 5.057850360870361 -0.6993699073791504
0.060864560306072235 10.568020820617676 -2.8201444149017334
0.5026153326034546 10.579446792602539 -2.8263561725616455
0.9883913993835449 10.585498809814453 -2.835066556930542
0.7590448260307312 10.580240249633789 -2.784980297088623
0.12526556849479675 10.62333869934082 -2.607879400253296
0.16184209287166595 10.693946838378906 -2.208817958831787
0.9168502688407898 10.6041898727417 -2.5939033031463623
0.5454702973365784 10.632125854492188 -2.547741413116455
0.28708845376968384 10.673308372497559 -2.7968759536743164
-1.725724697113037 3.801987886428833 0.8139930367469788
-1.7587372064590454 3.9001073837280273 0.37998172640800476
-1.8016853332519531 3.879189968109131 0.08669205009937286
-1.7649853229522705 3.6494998931884766 0.3590933084487915
-1.7851518392562866 3.350123882293701 0.7351341843605042
-1.7402304410934448 3.271678924560547 0.986721932888031
-1.7472727298736572 3.2998576164245605 0.3285595774650574
-1.7567139863967896 3.2689003944396973 0.06575678288936615
-1.7441025972366333 3.0468008518218994 0.4348886013031006
-1.7156938314437866 3.1196608543395996 0.6825435161590576
-1.7211894989013672 3.539118766784668 0.611160159111023
-1.727712869644165 3.5413146018981934 0.07060446590185165
-1.7299113273620605 3.023864984512329 0.07222487777471542
-1.7189866304397583 3.975417375564575 0.6593232750892639
-1.7128450870513916 3.6204354763031006 0.9678904414176941
-1.692068099975586 3.7588820457458496 0.5564270615577698
-1.731449007987976 3.0247461795806885 0.8855021595954895
-1.734324336051941 3.993950605392456 0.9394990801811218
-1.9392023086547852 3.081587076187134 0.6150471568107605
-1.9441485404968262 3.1930675506591797 0.31993481516838074
-1.9391754865646362 23.875993728637695 3.285339593887329
-1.9613910913467407 23.64418601989746 3.2765655517578125
-1.9519904851913452 23.271921157836914 3.2143757343292236
-1.9563484191894531 23.033103942871094 3.0956790447235107
0.47727563977241516 14.02252197265625 1.9692474603652954
0.6570017337799072 14.273258209228516 1.2643712759017944
0.8626663088798523 14.20997428894043 1.946443796157837
0.5097826719284058 14.456925392150879 1.3274710178375244
0.5793240666389465 14.29006576538086 1.9781774282455444
0.1574210226535797 14.535749435424805 1.2874019145965576
0.36177587509155273 14.657198905944824 1.3011963367462158
0.11207038909196854 14.805207252502441 1.3258136510849
0.10772359371185303 14.055635452270508 1.5738704204559326
-6.944469451904297 -10.319005966186523 3.2415950298309326
-0.5504862666130066 -20.477998733520508 2.0349063873291016
-0.8006759881973267 -20.543474197387695 2.043144702911377
-0.8007403016090393 -20.1409969329834 2.481349468231201
-0.47381433844566345 -20.08999252319336 2.4670510292053223
-0.038843587040901184 -20.014263153076172 2.4156389236450195
-0.12016012519598007 -20.565155029296875 2.5125951766967773
-0.551908016204834 -20.58717918395996 2.550110101699829
3.1043899059295654 -16.01725196838379 4.467063903808594
5.095380783081055 19.0451717376709 3.932577610015869
5.125205993652344 19.114107131958008 3.0229153633117676
5.643976211547852 -19.649200439453125 0.891114354133606
5.389514446258545 -19.630970001220703 0.04120650142431259
5.306840896606445 -19.64044952392578 0.8998132348060608
5.8243818283081055 -19.661954879760742 0.08745446056127548
5.902139663696289 -19.65542984008789 0.9467983841896057
2.796769142150879 -21.005598068237305 1.032698631286621
-1.0703097581863403 3.348820686340332 -0.2982177436351776
-1.8205379247665405 3.972236156463623 -0.06050608679652214
-1.3000860214233398 3.306931734085083 -0.28894975781440735
-1.7543007135391235 3.492316484451294 -0.061632927507162094
-1.5175409317016602 3.1925923824310303 -0.29909947514533997
-1.7748295068740845 3.1531691551208496 -0.04581206291913986
-1.7527964115142822 3.7135682106018066 -0.19688966870307922
-1.7389634847640991 3.8431169986724854 -0.4950297772884369
-1.7775566577911377 3.087526798248291 -0.3000538945198059
-1.113351583480835 3.6103456020355225 -0.3049236238002777
-1.7032268047332764 3.3689539432525635 -0.29830995202064514
-1.4070146083831787 3.5239038467407227 -0.2866353988647461
-1.0053144693374634 3.0025932788848877 -0.36169639229774475
-1.0148009061813354 3.930720567703247 -0.3240009546279907
-1.4071699380874634 3.753828287124634 -0.3264017105102539
-1.2341992855072021 3.0164027214050293 -0.36034834384918213
-1.2724127769470215 3.9705121517181396 -0.3217581808567047
-1.5584042072296143 3.9198801517486572 -0.29172468185424805
-1.8098511695861816 3.3167872428894043 -0.5263491868972778
-1.846830129623413 3.5321223735809326 -0.8794757127761841
-1.7711260318756104 -2.588200807571411 1.6137694120407104
-1.783511757850647 -2.6447322368621826 1.9669770002365112
-1.7572710514068604 -2.0863349437713623 1.8730220794677734
-1.7414326667785645 -2.073923110961914 1.541280746459961
-1.8358558416366577 -2.780405282974243 1.0036096572875977
-1.779544711112976 -2.1028294563293457 1.2304352521896362
-1.7805660963058472 -2.6691994667053223 1.2923154830932617
-1.7768999338150024 -2.307832717895508 1.5972309112548828
-1.7960188388824463 -2.4376308917999268 1.2690426111221313
-1.7796638011932373 -2.410191535949707 1.9238324165344238
-1.7513104677200317 -2.902614116668701 1.9063963890075684
-1.7890690565109253 -2.9806442260742188 1.2889516353607178
-1.8019882440567017 -2.2607691287994385 1.0548261404037476
-1.8599740266799927 -2.979670286178589 1.6606791019439697
-1.7874809503555298 -2.8100759983062744 1.5046653747558594
-1.8269108533859253 -2.4951579570770264 1.0297333002090454
-1.9450161457061768 -2.6167068481445312 1.4433939456939697
0.7507555484771729 10.565258026123047 -1.3473068475723267
0.17761562764644623 10.525500297546387 -1.3363869190216064
0.5024958848953247 10.572647094726562 -1.3310049772262573
0.37288907170295715 10.689082145690918 -1.7331279516220093
0.5789124965667725 10.65482234954834 -1.6156728267669678
2.175964117050171 -2.096172571182251 -0.4718579053878784
2.5920848846435547 -2.9715428352355957 -0.4840286374092102
2.3668222427368164 -2.930522918701172 -0.4620971083641052
2.1488077640533447 -2.8578145503997803 -0.4363507926464081
2.5424094200134277 -2.704418659210205 -0.45368003845214844
2.316187858581543 -2.550856828689575 -0.4197080433368683
2.953427314758301 -2.111668109893799 -0.4546824097633362
2.0497186183929443 -2.6083364486694336 -0.41263484954833984
2.5490665435791016 -2.1544759273529053 -0.4212131202220917
2.156562566757202 -2.3096609115600586 -0.3981591761112213
2.9344327449798584 -2.3135488033294678 -0.5879892706871033
2.4929873943328857 -2.491140842437744 -0.5484798550605774
2.7122480869293213 -2.4330532550811768 -0.5493093132972717
2.8510804176330566 -2.9316961765289307 -0.5972902178764343
2.806549072265625 -2.6525261402130127 -0.5492430925369263
2.3726561069488525 -2.2966043949127197 -0.5138934850692749
2.112466335296631 -2.4407966136932373 -0.5852457284927368
2.297240972518921 -2.6998250484466553 -0.5921440124511719
2.6413729190826416 -2.045628070831299 -0.6284627318382263
2.5627055168151855 -2.7130401134490967 -0.6792893409729004
5.509537220001221 5.476943492889404 0.6759545803070068
5.4935383796691895 5.39095401763916 0.13364873826503754
5.504461288452148 5.990257263183594 0.7080278992652893
5.491537094116211 5.982476711273193 0.14104856550693512
5.501294136047363 5.823558807373047 0.41764208674430847
5.509497165679932 5.002561092376709 0.6437603235244751
5.5086445808410645 5.4838433265686035 0.40226566791534424
5.514227390289307 5.001439094543457 0.1297270804643631
5.527467250823975 5.004611968994141 0.9104761481285095
5.5180535316467285 5.021891117095947 0.3837933838367462
5.516276836395264 5.677889347076416 0.13292890787124634
5.5049028396606445 5.548536777496338 0.9523191452026367
5.523496150970459 5.247285842895508 0.6586693525314331
5.503411293029785 5.730988025665283 0.6840614080429077
5.518007755279541 5.321451663970947 0.9185595512390137
5.5168938636779785 5.799279689788818 0.9583466649055481
5.508087158203125 5.256463527679443 0.3929726779460907
2.9406237602233887 27.81325340270996 3.770388126373291
2.666886568069458 27.825578689575195 3.807722806930542
2.4080326557159424 27.765823364257812 3.8250937461853027
2.8936409950256348 27.18917465209961 3.6946489810943604
2.630467414855957 27.19357681274414 3.6305477619171143
3.585151195526123 7.988510608673096 2.334599733352661
3.995577573776245 7.7329816818237305 2.319289445877075
3.7853851318359375 7.849943161010742 2.3206288814544678
3.348362922668457 7.9910197257995605 2.2935469150543213
3.0122530460357666 7.927523612976074 2.240530252456665
3.949808120727539 7.99414587020874 2.2151060104370117
3.418633222579956 7.6719160079956055 2.253876209259033
3.790283441543579 7.568511009216309 2.276494264602661
3.071409225463867 7.687192440032959 2.3159823417663574
3.521483898162842 7.4492878913879395 2.2538130283355713
3.819068431854248 7.313332557678223 2.274618625640869
3.2693023681640625 7.439472675323486 2.3078978061676025
3.949549436569214 7.1110520362854 2.2814011573791504
3.0321667194366455 7.394106864929199 2.294060468673706
3.034728765487671 7.045766353607178 2.3116817474365234
3.390230178833008 7.003647804260254 2.310366630554199
3.5574636459350586 7.2010273933410645 2.299861192703247
4.001697063446045 10.27441692352295 0.9609538912773132
4.507968425750732 10.284069061279297 0.5862686038017273
4.503414154052734 10.283440589904785 0.19525572657585144
4.003610610961914 10.295267105102539 0.19211429357528687
4.007967948913574 10.281949043273926 0.5726608633995056
4.496469974517822 10.285314559936523 0.9783006906509399
4.264947414398193 10.299341201782227 0.1957978904247284
4.263821601867676 10.289642333984375 0.5782226324081421
4.306311130523682 10.242199897766113 0.7967755794525146
4.726902484893799 10.257842063903809 0.11496066302061081
4.713891983032227 10.261256217956543 0.7713863253593445
4.7064208984375 10.240435600280762 0.4643230140209198
4.569121837615967 10.44581413269043 0.8405649662017822
4.392008304595947 10.24254035949707 0.3878513276576996
4.151731491088867 10.229734420776367 0.377363920211792
-0.43676286935806274 -20.415332794189453 4.5294060707092285
5.759582042694092 -3.5211851596832275 1.5485596656799316
5.749816417694092 -3.511080741882324 1.0603644847869873
5.241761207580566 -3.6716842651367188 1.2357419729232788
5.7353315353393555 -3.008563280105591 1.7237869501113892
5.739270210266113 -3.0080747604370117 1.4860233068466187
5.2535014152526855 -3.688491106033325 1.0114513635635376
5.725955486297607 -3.005119562149048 1.0179439783096313
5.25563907623291 -3.6794004440307617 1.464517593383789
5.756936073303223 -3.9999501705169678 1.0978431701660156
5.491759777069092 -3.835956335067749 1.5322462320327759
5.491349697113037 -3.8434829711914062 1.2949646711349487
5.738407611846924 -3.996851921081543 1.602056622505188
5.166034698486328 -3.994117498397827 1.0286957025527954
5.00803804397583 -3.719980001449585 1.4210405349731445
5.1668620109558105 -3.906907558441162 1.243295431137085
5.7841572761535645 -3.608549118041992 1.8063528537750244
5.741424083709717 -3.1206912994384766 1.2534122467041016
5.731929302215576 -3.691539764404297 1.3131338357925415
5.793554782867432 -3.8691442012786865 1.8497717380523682
5.751837253570557 -3.9393515586853027 1.3455688953399658
5.511781215667725 4.994271278381348 -0.38760125637054443
5.5306596755981445 4.912079811096191 -0.9031084179878235
5.511523723602295 4.49989652633667 -0.8684975504875183
5.522682189941406 4.472177505493164 -0.3702256977558136
5.0074944496154785 4.291942119598389 -0.5732851028442383
5.498676776885986 4.9985527992248535 -0.1377863883972168
5.504633903503418 4.489834308624268 -0.12575414776802063
5.542621612548828 4.00203800201416 -0.8338393568992615
5.516576766967773 4.001381874084473 -0.35333549976348877
5.525147914886475 4.005609512329102 -0.11775492876768112
5.458515644073486 4.011042594909668 -0.5935050845146179
5.219139099121094 4.160821914672852 -0.5836986899375916
5.41936731338501 4.32288122177124 -0.6009016633033752
5.548127174377441 4.264899253845215 -0.1228780448436737
5.524259090423584 4.751974105834961 -0.3788948357105255
5.085129737854004 4.566976070404053 -0.5858675837516785
5.4103546142578125 4.639351844787598 -0.611790120601654
5.1219377517700195 4.893870830535889 -0.5999112725257874
5.413066864013672 4.9650044441223145 -0.6300097107887268
5.545923709869385 4.235058784484863 -0.8009795546531677
-0.7294157147407532 -18.10808563232422 2.9501185417175293
-0.5382397174835205 -18.22907257080078 2.9778499603271484
-0.29323500394821167 -18.210941314697266 2.91524076461792
-0.051832132041454315 -18.414844512939453 2.924781322479248
-0.10470429807901382 -18.017967224121094 2.718965768814087
-0.9442043304443359 -18.943626403808594 2.9402191638946533
-0.7357742190361023 -18.9597225189209 2.852132797241211
-1.876878261566162 0.9247593283653259 -0.1793411374092102
-1.427323579788208 0.679125964641571 -0.13170315325260162
-1.6108481884002686 0.5331189632415771 -0.14396046102046967
-1.847744345664978 0.3482747972011566 -0.15968897938728333
-1.612215280532837 0.2025720477104187 -0.11449292302131653
-1.8569809198379517 0.5619706511497498 -0.23236405849456787
-1.388735055923462 0.09727053344249725 -0.10541192442178726
-1.5564898252487183 0.5243285298347473 -0.36883535981178284
-1.1691420078277588 0.998473048210144 -0.37548109889030457
-1.862715721130371 0.0878472551703453 -0.2211686372756958
-1.5108842849731445 0.9694284796714783 -0.3857226073741913
-1.336645483970642 0.7909886837005615 -0.3925338685512543
-1.606695532798767 0.7640201449394226 -0.3897734582424164
-1.8317674398422241 0.6950352191925049 -0.0283293928951025
-1.3196443319320679 0.5682289004325867 -0.4199278652667999
-1.222124457359314 0.019131014123558998 -0.37504273653030396
-1.2038118839263916 0.266606867313385 -0.3676134943962097
-1.7508478164672852 0.1976124346256256 -0.3993512988090515
-1.00198495388031 0.642606258392334 -0.40065452456474304
-1.4562255144119263 0.0054426370188593864 -0.42706242203712463
0.7585681080818176 13.510546684265137 2.330022096633911
0.705852210521698 13.05819320678711 2.2767481803894043
0.28393083810806274 13.69769287109375 2.1663641929626465
0.6992878913879395 13.711212158203125 2.160846710205078
0.9675901532173157 13.693775177001953 2.145346164703369
0.03573451191186905 13.71363353729248 2.1724283695220947
1.7377053499221802 -5.210249423980713 2.003876209259033
1.9593267440795898 -5.373202800750732 2.1137502193450928
1.0604890584945679 -5.988466262817383 2.2644362449645996
1.8630104064941406 -5.584979057312012 2.1793088912963867
1.0309587717056274 -5.282175540924072 2.1621594429016113
1.271235704421997 -5.305549144744873 2.1625301837921143
1.5302915573120117 -5.2885212898254395 2.156923770904541
1.5640312433242798 -5.624465465545654 2.2192788124084473
1.875011920928955 -5.014828205108643 2.0523762702941895
1.697743535041809 -5.069062232971191 2.177639961242676
1.3922039270401 -5.001086711883545 2.1928396224975586
1.1274272203445435 -5.020425796508789 2.2059102058410645
-0.9185456037521362 6.001343250274658 2.580721378326416
-0.6609709858894348 6.046097755432129 2.5344302654266357
-0.4306700825691223 6.0559282302856445 2.5365328788757324
-0.7279418110847473 6.992836952209473 2.3904590606689453
-0.18611662089824677 6.049437522888184 2.509028434753418
-0.9010389447212219 6.814691543579102 2.37803316116333
-0.9869993329048157 6.604052543640137 2.307868480682373
-0.4865363836288452 6.929226398468018 2.304335355758667
-0.16762365400791168 6.9887189865112305 2.335629940032959
-0.7435404062271118 6.620575904846191 2.322932481765747
-0.9889591336250305 6.370763301849365 2.266575813293457
-0.10070997476577759 6.788107395172119 2.2585175037384033
-0.5546888113021851 6.496051788330078 2.275679349899292
-0.3968619108200073 6.724544525146484 2.3276734352111816
-0.3096798062324524 6.216702461242676 2.3894691467285156
-0.029226697981357574 6.351088523864746 2.411790609359741
-0.8174214959144592 6.264562129974365 2.4221975803375244
-0.13825516402721405 6.559500694274902 2.4067492485046387
-0.5531545877456665 6.295350551605225 2.398800849914551
0.7063378095626831 11.422544479370117 0.40335506200790405
0.7063703536987305 11.381916999816895 0.6616411209106445
0.5579973459243774 11.34712028503418 0.9107110500335693
0.5981069803237915 11.284900665283203 0.14662671089172363
0.5499602556228638 11.190264701843262 0.39096230268478394
0.5398315787315369 11.181999206542969 0.6534714698791504
0.8061648607254028 11.000860214233398 0.6097331047058105
0.6726245880126953 11.011175155639648 0.1321071833372116
0.8298131227493286 11.084441184997559 0.37420234084129333
-1.9618765115737915 24.676395416259766 3.4039149284362793
-1.9196780920028687 24.226322174072266 3.3369767665863037
-1.975813388824463 24.893146514892578 3.466064453125
-1.9851628541946411 24.001131057739258 3.311352252960205
4.065395355224609 14.046939849853516 2.308645486831665
3.304263114929199 -8.40987491607666 0.47133877873420715
3.254000425338745 -8.463712692260742 0.7896056175231934
3.300830602645874 -8.443617820739746 0.1625170111656189
3.545969009399414 -8.441615104675293 0.8666162490844727
3.7868282794952393 -8.59287166595459 0.9203571081161499
3.6417078971862793 -8.611226081848145 0.537262499332428
3.89626145362854 -8.47635555267334 0.7385983467102051
3.988797426223755 -8.51744556427002 0.9952829480171204
3.140336513519287 -8.573387145996094 0.5914596915245056
3.1255123615264893 -8.470308303833008 0.9733105301856995
3.081770181655884 -8.507390975952148 0.12197525799274445
-2.424903154373169 9.322689056396484 0.5026357173919678
-2.321829080581665 9.049480438232422 0.16237540543079376
-2.414708375930786 9.317686080932617 0.8450554609298706
-2.4553239345550537 9.32259464263916 0.17483898997306824
-2.278061628341675 9.08631420135498 0.8145259618759155
-2.0063834190368652 9.043736457824707 0.15955062210559845
-2.0037736892700195 9.087996482849121 0.8111721873283386
-2.0037524700164795 9.049321174621582 0.47622090578079224
-2.005436897277832 9.353134155273438 0.8462399244308472
-2.3408846855163574 9.091767311096191 0.5109662413597107
-2.645810604095459 9.283894538879395 0.842064619064331
-2.683788776397705 9.342984199523926 0.5431949496269226
-2.676105499267578 9.30016040802002 0.23791122436523438
-2.856843948364258 9.377198219299316 0.8004021644592285
-2.8891570568084717 9.323007583618164 0.12973865866661072
-2.909329652786255 9.287612915039062 0.38172125816345215
-2.9672040939331055 9.343954086303711 0.5982927680015564
-2.622056722640991 9.300044059753418 0.004416450392454863
-2.030268907546997 9.3108491897583 0.11232341825962067
-2.0056207180023193 9.423203468322754 0.4904715120792389
8.016799926757812 9.362674713134766 0.632237434387207
8.119237899780273 9.358768463134766 0.21410496532917023
8.048401832580566 9.400678634643555 0.9543536901473999
8.286663055419922 9.380433082580566 0.5505619049072266
8.40371036529541 9.385343551635742 0.08032803237438202
8.261104583740234 9.366424560546875 0.8740633130073547
8.727375984191895 9.39358901977539 0.04760509356856346
8.755743980407715 9.401921272277832 0.4422752261161804
8.596827507019043 9.334152221679688 0.8847557306289673
8.541389465332031 9.496516227722168 0.46400219202041626
8.801223754882812 9.098397254943848 0.48859626054763794
8.767485618591309 9.035531997680664 0.10225401073694229
8.848676681518555 9.29713249206543 0.8786981701850891
8.948288917541504 9.297658920288086 0.06976082175970078
8.733650207519531 9.025200843811035 0.8212218880653381
8.802361488342285 9.215702056884766 0.2706359624862671
8.376147270202637 9.348690032958984 0.3143170475959778
8.848861694335938 9.350419044494629 0.6548686027526855
8.591858863830566 9.376449584960938 0.6465306878089905
0.8173487782478333 -11.198598861694336 2.436408042907715
0.1568174809217453 -11.710955619812012 2.491835355758667
-0.5019575357437134 -4.209545135498047 -0.07329831272363663
-0.18738381564617157 -4.174750804901123 -0.6551991105079651
-0.001454644137993455 -4.168400764465332 -0.36097368597984314
-0.5122121572494507 -4.16448974609375 -0.35442039370536804
-0.25618070363998413 -4.162120342254639 -0.3695017695426941
-0.7440929412841797 -4.2874884605407715 -0.3691263496875763
-0.9913485646247864 -4.187557697296143 -0.3765028715133667
-0.48245152831077576 -4.192923545837402 -0.6626944541931152
-0.2011163830757141 -4.169867038726807 -0.0762534812092781
-0.7582242488861084 -4.063476085662842 -0.35416698455810547
-0.03672612085938454 -4.257796287536621 -0.9538100957870483
-0.3160518407821655 -4.2347307205200195 -0.982610285282135
-0.3833374083042145 -4.342568874359131 -0.42347273230552673
-0.2506332993507385 -4.861767292022705 -0.37572064995765686
-0.0030867394525557756 -4.703019142150879 -0.6785147786140442
-0.27428606152534485 -4.3929667472839355 -0.6686298251152039
-0.26370948553085327 -4.932445049285889 -0.7016915082931519
-0.9242750406265259 -4.068328380584717 -0.6841892004013062
-0.7553778290748596 -4.503094673156738 -0.686824381351471
-0.9228211641311646 -4.659623146057129 -0.7224173545837402
1.509607195854187 5.645753860473633 -0.3040730357170105
1.557756781578064 5.678618907928467 -0.7178670167922974
1.0436500310897827 5.714480876922607 -0.7081174850463867
1.0141105651855469 5.641830921173096 -0.2982114255428314
1.5237958431243896 5.3316650390625 -0.48142296075820923
1.0077157020568848 5.292664051055908 -0.4676523506641388
1.9946842193603516 5.339848518371582 -0.49310302734375
1.9997179508209229 5.691392421722412 -0.7455824017524719
1.9999520778656006 5.648162364959717 -0.311864972114563
1.7589341402053833 5.717057228088379 -0.30065712332725525
1.2528067827224731 5.697100639343262 -0.2916870415210724
1.284824252128601 5.394798278808594 -0.46539244055747986
1.3613566160202026 5.554409503936768 -0.68471360206604
1.8401422500610352 5.499087333679199 -0.6881123185157776
1.116283893585205 5.460816860198975 -0.6557022333145142
1.7538790702819824 5.360845565795898 -0.4675133228302002
1.566495418548584 5.917014122009277 -0.2970173954963684
1.1609902381896973 5.977341651916504 -0.29822787642478943
1.2409248352050781 5.2023210525512695 -0.5739947557449341
1.5800803899765015 5.1250152587890625 -0.5677375793457031
1.938472867012024 -4.970839023590088 1.9926135540008545
3.9614081382751465 -16.08169937133789 3.709646701812744
3.969712257385254 -16.205183029174805 3.008577346801758
3.085733413696289 -16.10607147216797 3.7250049114227295
3.3113248348236084 -16.049869537353516 3.719447135925293
3.480426073074341 -16.208702087402344 3.014322519302368
3.2573659420013428 -16.231048583984375 3.015909433364868
3.410846471786499 -16.255996704101562 3.6644058227539062
3.420252561569214 -16.09471321105957 3.494119167327881
3.0861494541168213 -16.06757164001465 3.2809720039367676
3.5023324489593506 -16.005773544311523 3.837858200073242
3.4495959281921387 -16.07204246520996 3.2073748111724854
3.830017566680908 -16.008075714111328 3.317107915878296
3.7349603176116943 -16.013330459594727 3.76516056060791
5.517627239227295 4.980311870574951 0.12904129922389984
5.530057907104492 4.492555141448975 0.1236659586429596
5.541833400726318 4.497302532196045 0.6206978559494019
5.522490978240967 4.979457378387451 0.6468445658683777
5.528924942016602 4.001379489898682 0.5902427434921265
5.528254985809326 4.0025482177734375 0.35223981738090515
5.51820707321167 4.995502948760986 0.9025322794914246
5.530773639678955 4.001095771789551 0.11955735087394714
5.545810222625732 4.746049404144287 0.6282954216003418
5.551668167114258 4.253698348999023 0.1181609109044075
5.564370632171631 4.258268356323242 0.6025007963180542
5.541715621948242 4.7480998039245605 0.12377491593360901
5.536492347717285 4.464485168457031 0.36943626403808594
5.5371012687683105 4.741036415100098 0.8827043771743774
5.510409355163574 4.87447452545166 0.38356658816337585
5.557026386260986 4.37066650390625 0.8488577008247375
5.546508312225342 4.0381855964660645 0.8187773823738098
5.525737762451172 4.183155536651611 0.9952592253684998
